# .PCD v0.7 - Point Cloud Data file format
VERSION 0.7
FIELDS x y z
SIZE 4 4 4
TYPE F F F
COUNT 1 1 1
WIDTH 1601
HEIGHT 1
VIEWPOINT 0 0 0 1 0 0 0
POINTS 1601
DATA ascii
-2.483 114.172 41.4823
-40.4977 116.683 32.5662
18.4751 82.463005 51.595798
-21.506401 116.765 35.5266
-8.4937401 116.931 39.3004
7.4855599 116.867 38.491699
-49.491901 154.959 10.3413
-24.738501 124.904 0.54900301
-28.505201 117.99001 30.9781
-17.4811 118.153 35.7243
-46.497501 163.76799 5.4516802
-46.468998 119.345 28.980801
-80.828896 138.985 -2.81163
-71.522202 142.81801 45.570198
-81.073502 143.155 -0.82821202
-8.7769499 169.64699 -23.747999
-74.497002 124.608 53.235603
41.179897 84.432106 -9.7924099
9.1968699 124.582 -8.2418098
44.624298 95.967102 6.1707902
-76.496597 130.271 52.9935
-70.517006 146.976 42.003098
-73.507004 121.80099 53.5653
39.566902 101.28101 -4.8092799
44.1819 94.548393 19.158899
-42.498997 113.90601 34.676998
41.327 98.606903 25.1647
38.9203 108.38 16.165899
-38.487801 168.246 2.3689401
42.3363 101.455 3.1795599
-33.632801 126.783 4.5724902
-68.252098 159.44 -8.3276501
-67.571999 158.668 -8.0691299
-62.909203 156.144 21.237999
15.1438 128.336 22.384699
-64.370499 154.69701 29.4695
-38.124401 127.64101 14.6907
-61.150497 153.58501 32.1143
13.104699 129.972 17.3477
-67.962296 162.61 -14.0168
3.85238 131.76601 12.5385
-87.1129 152.836 15.7593
-66.514595 166.61 -58.0261
-29.5306 123.94601 -1.25424
20.8388 126.564 17.3475
21.662701 126.09499 17.651501
-72.593002 155.911 1.7129101
-71.690201 155.937 2.11062
-4.0550599 101.077 45.1334
-67.559502 163.657 -16.750299
-66.8255 162.993 -16.473999
-66.479805 83.2826 43.443001
-65.500298 83.297997 43.8708
-64.489601 83.328903 44.086098
-63.490704 83.347702 44.184498
-62.496799 83.320496 44.117599
-61.498501 83.322395 43.940601
-60.497501 83.290298 43.7356
-59.493401 83.296799 43.694099
-58.486202 83.306602 43.8144
-57.4832 83.332703 44.198502
-56.478897 83.374596 44.690098
-55.485699 83.402702 45.0839
-54.493401 83.414101 45.240398
-53.4986 83.3862 45.048798
-52.496502 83.378502 44.899002
-51.495399 83.3657 44.776199
-50.4972 83.371002 44.762001
-49.492199 83.347794 44.680099
-48.4907 83.339401 44.5457
-47.498402 83.340195 44.379902
-46.496101 83.330399 44.249798
-45.504002 83.298805 43.7099
-44.509399 83.246605 43.063202
-43.502899 83.214401 42.6759
-42.4907 83.178802 42.288502
-41.491001 83.201294 42.551598
-40.479298 83.2528 43.163399
-39.478298 83.283203 43.543201
-38.484497 83.304893 43.783798
-37.497799 83.303802 43.825203
-36.505302 83.292496 43.701
-35.528103 83.264595 43.273502
-34.508102 83.202507 42.5625
-33.497097 83.147202 41.957199
-32.496696 83.1278 41.702301
-31.5191 83.1203 41.7649
-30.628099 83.143799 42.375198
-29.442999 83.406296 44.730904
-68.376701 176.522 -58.017601
-87.972595 100.935 7.3994999
-88.381401 100.948 8.4162703
-85.560699 103.501 2.3928401
-85.543793 106.245 4.4678302
-89.195602 99.693001 18.3885
-89.317101 99.695694 17.3941
-0.39820901 131.157 6.6723504
-20.484001 84.224205 56.671299
-19.494001 84.260796 57.1688
-18.4932 84.276604 57.400799
-17.500999 84.291199 57.573601
-16.4643 84.275497 57.229797
-15.502399 84.237 56.851902
-14.5005 84.248604 56.981998
-13.5056 84.265594 57.230499
-12.4981 84.278297 57.418999
-11.496201 84.2854 57.531101
-10.4999 84.293297 57.5891
-9.49578 84.297997 57.606201
-8.4935608 84.293594 57.5382
-7.4931998 84.269394 57.298103
-6.4997597 84.242798 56.908699
-5.4994597 84.248199 56.976501
-4.5076399 84.273499 57.285702
-3.5023601 84.281303 57.460598
-2.50438 84.299103 57.540199
-1.50012 84.287598 57.502899
-0.49780601 84.286598 57.508801
0.50445098 84.284798 57.5158
1.50378 84.285805 57.5429
2.50545 84.278099 57.448303
3.5092399 84.270096 57.336403
4.5205002 84.250702 57.145901
5.5187297 84.2341 56.881599
6.5170898 84.208 56.508102
6.49755 131.366 17.7838
-85.097603 106.195 3.3768699
38.894501 108.364 17.164101
39.158298 108.387 12.165299
-69.4944 117.56 52.5327
-74.503899 117.561 52.661499
-87.968796 113.092 6.2888799
-49.4799 116.621 32.389202
28.153099 119.463 25.784399
40.037098 107.01701 9.1647005
17.494499 83.857498 51.403103
18.494099 83.833298 51.0457
19.476299 83.795799 50.7486
11.474999 115.421 37.9758
5.4937601 116.905 38.9072
36.318897 106.784 -4.8284297
4.8782501 131.703 12.912499
-27.513901 118.013 31.246
-16.5021 118.207 36.145603
-19.598299 126.231 21.3862
-47.452801 119.349 29.3599
10.8333 130.856 15.0885
-31.401102 178.52301 -6.4512796
-62.762997 149.04199 -17.5788
42.722099 101.476 8.1648502
-73.497696 124.615 53.279301
-60.908298 169.36301 -59.693199
-88.709099 98.331802 21.382101
44.654297 95.975403 7.1663399
-75.487396 130.27499 52.8009
-61.727699 159.994 -34.594101
-70.702301 155.80701 2.4713399
-1.4990699 122.451 35.765202
44.056099 94.538803 20.158199
37.4772 106.859 -1.83322
-3.4897699 122.389 35.9468
-39.474701 168.23601 2.77528
-40.499901 168.23 2.86674
-74.618103 165.272 -19.163
-69.781799 160.64 -8.8794098
-69.000298 160.06599 -8.5881701
-57.865799 154.16899 27.419699
12.525101 129.483 21.419498
-65.307899 154.95799 29.1369
-39.063099 127.858 14.3467
13.984 129.601 17.6686
-70.430298 164.039 -14.9268
6.9835401 131.64101 13.682
-71.340004 156.839 -0.73859996
-83.339294 97.924393 -4.6092901
19.142799 127.42699 16.721399
19.976801 126.96899 17.027401
-4.0763202 124.795 32.822002
-81.069 152.209 31.200399
-69.855103 165.23001 -17.588999
-69.106102 164.802 -17.328201
-68.288696 164.315 -17.0259
-23.0436 87.952301 53.772202
-79.039795 119.048 50.661999
-66.607201 84.693298 43.768303
-65.484001 84.742393 44.207401
-64.495895 84.744995 44.362198
-63.4981 84.740494 44.385101
-62.498001 84.747101 44.361698
-61.4977 84.733398 44.255302
-60.497601 84.728302 44.102901
-59.499699 84.692497 43.9263
-58.4939 84.716698 43.9692
-57.490402 84.734795 44.209202
-56.470901 84.776398 44.651402
-55.479702 84.803703 45.061699
-54.495899 84.812401 45.2537
-53.492798 84.823601 45.3456
-52.4963 84.8256 45.369598
-51.498199 84.8246 45.390099
-50.496998 84.822601 45.394699
-49.505497 84.836899 45.321301
-48.499001 84.8032 45.130699
-47.5005 84.794998 44.996998
-46.501499 84.760399 44.632099
-45.459503 84.698296 44.092899
-44.484501 84.6726 43.419998
-43.513302 84.655205 43.172901
-42.4883 84.600395 42.629799
-41.499599 84.603302 42.609402
-40.486202 84.654396 43.189602
-39.489197 84.682098 43.580101
-38.486099 84.7024 43.796101
-37.499199 84.710098 43.935101
-36.5135 84.702995 43.785603
-35.527699 84.675499 43.377197
-34.522602 84.6315 42.7551
-33.497898 84.5774 42.1828
-32.492298 84.561501 41.914898
-31.489399 84.5774 42.190201
-30.556799 84.597298 42.796001
-29.456699 84.790901 44.594002
-11.143 128.894 2.67925
-9.8936796 129.282 3.14288
-65.333 177.827 -60.698502
-86.725197 99.486298 3.4274702
-92.950302 128.215 12.2521
-25.835899 94.514305 -26.6147
-2.6893198 130.84599 5.8189702
-1.4838201 131.063 6.2709599
-20.497 85.590599 56.340298
-19.488501 85.617203 56.795002
-18.4879 85.6371 57.1362
-17.488901 85.6455 57.252197
-16.4998 85.643906 57.0811
-15.502 85.630699 56.881199
-14.497 85.6418 57.070198
-13.499701 85.650696 57.197998
-12.503 85.655197 57.236
-11.4987 85.654701 57.292301
-10.4973 85.6567 57.2952
-9.49755 85.665894 57.429298
-8.4988594 85.670097 57.4538
-7.4854102 85.651703 57.217602
-6.4965596 85.633705 56.955799
-5.4993401 85.642006 57.091099
-4.50177 85.656395 57.277401
-3.5002899 85.669098 57.293301
-2.5006099 85.664803 57.281597
-1.4976 85.665207 57.326397
-0.49716002 85.662605 57.334198
0.50351602 85.670204 57.379303
1.50486 85.670303 57.381702
2.5040801 85.662201 57.3274
3.51036 85.6577 57.241299
4.5138602 85.6474 57.125999
5.5130701 85.628799 56.865498
6.5061197 85.608398 56.592701
7.5205097 85.587097 56.272598
-25.5949 125.93301 7.52005
-6.4597802 91.865395 -35.4548
30.7365 117.405 25.319201
-25.362501 126.17699 10.523
-76.496597 117.54401 52.046799
45.338299 86.183601 19.1712
-47.4944 116.586 31.973898
-44.5005 116.60201 32.226398
-42.5028 116.64 32.5093
17.485102 85.206902 50.785603
18.472601 85.174095 50.5075
19.474501 85.151901 50.256001
20.473598 85.138496 50.011799
4.4964099 116.92 39.167999
-43.490398 128.42999 0.92967099
-75.431801 155.396 8.0824699
39.639202 106.988 4.1654701
-15.5184 118.264 36.5807
45.042198 93.192398 13.161901
27.825899 115.624 -6.59973
-73.403297 167.233 -21.7479
-2.49512 122.376 35.937302
-38.486 115.285 33.323898
-15.4972 122.303 32.465099
-72.482697 124.619 53.211399
40.425503 91.408897 -9.7878103
42.335499 97.258705 24.161501
44.615601 95.9646 9.1608696
-74.495598 130.26001 52.409298
46.021301 86.226204 9.1715899
-27.930601 125.506 6.6641297
-81.594803 123.081 50.4133
41.834297 94.399101 27.1656
-92.122803 126.953 37.2491
15.5 114.02 37.778297
-76.497894 135.856 50.767899
-24.4452 181.836 -9.6114397
-78.528397 123.123 51.631901
-70.618195 161.097 -9.1913795
-71.556 161.392 -9.5194702
8.8638401 130.68401 20.080799
-57.229198 155.416 14.577801
33.164402 113.8 26.238499
14.851501 129.25499 18.017099
-71.310402 164.383 -15.2637
7.96175 131.494 14.034699
-24.0415 126.597 10.9996
-23.487501 125.296 1.0065
18.313101 127.88699 16.4149
-16.4676 125.926 25.4562
-69.998001 157.61099 -3.1485002
-71.739098 165.925 -18.295599
-70.738602 165.621 -17.9174
-35.738598 176.065 -5.1567602
-37.0933 175.55501 -5.65624
-38.618301 174.771 -6.2167902
-88.376701 125.34399 1.2797099
-67.474899 86.100098 43.694702
-66.490501 86.127403 44.111099
-65.478302 86.163399 44.449799
-64.494293 86.167099 44.6171
-63.490501 86.185097 44.706699
-62.495602 86.183395 44.718399
-61.498299 86.180801 44.7299
-60.496403 86.162094 44.651299
-59.496998 86.157303 44.5009
-58.495602 86.149796 44.3498
-57.485199 86.161598 44.418499
-56.493202 86.164803 44.612099
-55.4832 86.194405 44.9632
-54.490498 86.212395 45.2239
-53.488602 86.233803 45.457298
-52.498199 86.233604 45.538998
-51.497398 86.244003 45.613098
-50.4958 86.2332 45.571598
-49.502296 86.2453 45.599503
-48.495201 86.224396 45.4118
-47.496502 86.205605 45.143002
-46.476402 86.162796 44.679798
-45.481903 86.125504 44.155502
-44.493 86.096298 43.754902
-43.501499 86.056 43.219997
-42.490402 86.0159 42.6903
-41.497601 86.006401 42.598099
-40.500702 86.0467 43.108097
-39.471203 86.080002 43.535198
-38.4869 86.099701 43.790703
-37.497601 86.109802 43.9188
-36.5117 86.093498 43.628399
-35.463501 86.041801 43.1394
-34.499401 86.025497 42.6749
-33.497299 85.986397 42.340599
-32.497398 85.985695 42.346897
-31.5044 86.000298 42.621601
-30.474501 86.0755 43.318901
-29.424601 86.1745 44.481899
-5.0359201 130.42999 4.9464698
-6.24295 130.196 4.4984102
-7.43574 129.90601 4.0566897
-8.6968107 129.55899 3.5869801
2.9864399 131.511 7.9308004
1.8938 131.459 7.52669
-3.83551 130.67099 5.39431
4.0771799 131.556 8.3375797
-20.4778 86.948997 55.949299
-19.484798 86.969398 56.3134
-18.4974 86.996201 56.580498
-17.504 87.009399 56.730198
-16.485199 87.000397 56.7616
-15.4952 87.015999 56.836697
-14.5001 87.023598 56.964302
-13.504499 87.034203 57.106098
-12.4944 87.024895 57.033901
-11.4972 87.012405 56.824799
-10.5011 87.0252 56.9814
-9.5013103 87.0429 57.2309
-8.5024099 87.044296 57.260902
-7.48945 87.038399 57.134899
-6.4965501 87.031502 57.087299
-5.5007401 87.033401 57.1343
-4.4981399 87.035797 57.126701
-3.4974799 87.0382 57.0453
-2.49822 87.028305 56.979099
-1.49439 87.030205 56.9025
-0.49532402 87.035599 56.913601
0.502823 87.0298 56.975101
1.50556 87.0476 56.931297
2.5048101 87.034203 56.986401
3.50598 87.027802 56.972
4.5046601 87.015999 56.840099
5.5101099 87.005501 56.6199
6.5192099 86.995697 56.4058
7.51373 86.9673 56.131599
8.4945993 86.943497 55.8386
-29.481298 179.959 -7.2625799
39.84 106.96201 5.1739101
30.089401 118.197 25.075701
-75.506599 117.55 52.426498
-92.808098 120.209 41.284302
-48.475998 116.631 32.032799
-46.495098 116.619 31.884302
-45.5014 116.621 32.004799
17.481298 86.574394 50.312199
18.493299 86.545197 49.848797
19.460798 86.501396 49.729801
20.493799 86.5196 49.481197
21.4869 86.500198 49.2244
-14.3481 129.14699 11.615299
-84.739799 106.178 2.38203
-70.324501 80.560402 40.322701
-18.492199 118.16 35.495998
29.2295 102.131 38.919003
-27.929399 93.135902 -26.5478
-9.8300695 124.748 -8.21099
18.512299 115.397 36.558399
-40.492199 115.31 33.705101
28.860699 118.772 26.0462
-71.492203 124.606 53.129299
-29.366201 90.413506 -28.5737
42.674099 97.264107 23.1497
44.641098 95.9729 8.1641893
-32.7551 126.411 4.8966103
36.334202 109.637 -0.82972699
-77.598495 123.13699 52.122299
-31.468801 175.76399 -3.4096599
42.362297 94.4394 26.1744
39.389599 106.975 3.1658299
38.675499 101.22501 -6.8071699
-71.467598 155.48199 26.968599
-23.441 181.825 -10.569901
4.9470401 131.338 18.649601
-79.592598 100.727 33.4268
-64.524803 154.173 -6.9233899
7.9349194 130.935 19.7362
-85.880501 92.657097 1.45452
32.560902 114.759 26.0072
15.7394 128.86099 18.3169
24.299599 120.93401 28.6395
8.9357004 131.311 14.389899
-85.180794 153.52499 14.937699
-89.636101 96.993103 14.4152
10.2886 130.98 13.4608
-69.255905 157.013 -2.8766501
-74.123894 165.56799 -19.1297
-72.841499 165.90599 -18.6805
-33.303303 176.60899 -4.2616301
-34.441502 176.44901 -4.7151504
-94.038704 126.929 23.261501
-66.011597 154.522 30.3582
-87.361595 110.481 11.3565
-77.6353 156.92999 -18.905201
-67.518707 87.497597 43.783401
-66.474899 87.547798 44.3297
-65.493301 87.567299 44.621502
-64.491501 87.587997 44.8694
-63.4827 87.613396 45.0541
-62.497398 87.607597 45.145599
-61.4967 87.6222 45.231899
-60.495701 87.602798 45.161003
-59.502697 87.629196 45.02
-58.497299 87.567398 44.628098
-57.493401 87.562302 44.4505
-56.491901 87.569496 44.590702
-55.489498 87.586998 44.840897
-54.491798 87.6045 45.101402
-53.497398 87.616699 45.276001
-52.496399 87.6231 45.376499
-51.495701 87.634102 45.510201
-50.496498 87.636002 45.530098
-49.500397 87.633499 45.501999
-48.503902 87.621696 45.374302
-47.513203 87.599594 45.097702
-46.491398 87.57 44.653198
-45.481903 87.531593 44.159599
-44.4795 87.4935 43.659901
-43.531803 87.420998 43.004101
-42.497002 87.400803 42.479797
-41.4986 87.402802 42.497002
-40.4897 87.436203 42.942402
-39.4897 87.464401 43.327099
-38.491802 87.495201 43.710701
-37.505001 87.484802 43.678204
-36.500301 87.456001 43.0956
-35.470703 87.452705 42.968899
-34.503002 87.463699 42.8605
-33.495502 87.464806 43.047001
-32.489502 87.493401 43.430599
-31.484201 87.513901 43.674301
-30.469601 87.517799 43.818199
-29.384199 87.57 44.481697
7.2182903 131.495 9.48452
8.2433004 131.38 9.8653297
9.2246704 131.237 10.220799
10.1976 131.045 10.577
12.056601 130.535 11.2565
11.1186 130.77299 10.9156
5.1626401 131.576 8.7418499
6.1908603 131.53601 9.1129999
14.732301 129.513 12.2405
-19.487101 88.319504 55.723499
-18.509901 88.3573 56.019501
-17.4841 88.352997 56.295998
-16.497299 88.377998 56.466999
-15.4917 88.388397 56.678001
-14.4987 88.400604 56.8363
-13.499399 88.409599 56.966
-12.5093 88.3992 56.793201
-11.4976 88.376503 56.460701
-10.5064 88.4021 56.7868
-9.5009804 88.422501 57.110397
-8.4987602 88.423294 57.199001
-7.49863 88.424599 57.136101
-6.4958901 88.416595 57.09
-5.4933701 88.417 57.0387
-4.4940801 88.412003 56.907799
-3.48929 88.411499 56.8027
-2.4962099 88.3993 56.736599
-1.49343 88.397896 56.643097
-0.49691501 88.383896 56.582699
0.50653899 88.390602 56.512199
1.50878 88.399704 56.436699
2.5069098 88.3899 56.402699
3.5036299 88.375702 56.3643
4.5043201 88.367203 56.244102
5.5011301 88.351799 56.101501
6.50421 88.344902 55.878799
7.5132198 88.337898 55.6646
8.5045099 88.309601 55.394001
9.5087595 88.289902 55.046001
10.5044 115.47701 38.188801
-44.501701 163.75301 5.4230099
5.9068198 131.658 13.2863
-44.5084 162.276 5.9758301
-43.533001 162.269 5.66221
-50.489899 115.263 33.770302
-88.498695 102.354 18.368101
-72.179306 159.61 -38.931499
18.490101 87.901596 49.247601
19.477701 87.881805 49.192699
20.4946 87.882896 49.0965
21.4723 87.866905 49.026501
22.4603 87.857201 48.776199
-63.603497 156.12801 16.643499
-75.503601 121.78699 53.141098
-20.5212 118.181 34.795799
37.945599 109.77 17.170301
41.354599 99.988403 -1.8146601
-87.545898 110.452 14.3395
-58.473 115.363 36.9711
39.690899 105.526 1.19339
-28.512199 180.211 -6.9290895
-21.3522 127.058 7.6122499
-92.481895 125.44399 9.2726202
43.2211 97.314995 20.1647
38.857899 97.001503 -7.8400002
40.457901 97.140495 28.1735
-9.4635801 169.65399 -20.742601
-5.4833302 122.374 35.691601
-18.507599 120.924 32.741302
-61.855301 153.745 -23.580299
39.909 107.011 6.16363
39.967602 101.315 -3.8180499
-63.945896 153.257 -6.70123
-86.917404 117.103 1.25292
-66.598305 155.819 11.233399
1.73262 131.37 17.4841
5.9756503 131.26799 19.023699
-40.812702 127.672 -1.0355999
31.9596 115.65 25.7836
16.6077 128.46901 18.6355
-7.9513497 129.26399 24.077101
9.8674097 131.05901 14.7331
-21.831701 124.90601 22.0793
-89.626297 96.9991 15.4111
9.3569908 131.23199 13.1197
-68.515999 156.45399 -2.6359401
-29.791901 108.873 -19.272299
-72.653702 156.21001 14.885401
-55.519302 152.453 28.305099
-82.760399 106.087 -1.64696
-92.270302 125.567 32.2584
-71.513603 88.744499 41.619099
-70.504303 88.765503 41.855598
-29.338301 123.554 -2.65044
-30.2932 123.607 -3.01843
-67.492599 88.910202 43.735001
-66.501999 88.951202 44.263401
-65.490501 88.977905 44.6185
-64.500198 88.997498 44.8988
-63.483498 89.0243 45.2141
-62.495399 89.0364 45.380398
-61.491402 89.051003 45.454597
-60.4958 89.041901 45.325302
-59.507999 89.003601 45.034401
-58.4837 88.969002 44.676098
-57.499001 88.974403 44.668598
-56.4995 88.984695 44.819798
-55.497898 88.998199 44.8936
-54.497002 88.996407 44.882301
-53.496498 89.0047 44.996803
-52.495598 89.011604 45.112301
-51.497002 89.019699 45.237999
-50.498001 89.021202 45.249901
-49.495499 89.023705 45.163601
-48.498199 89.0084 45.0201
-47.496597 88.987 44.759899
-46.507702 88.954002 44.3573
-45.5158 88.912598 43.8293
-44.470798 88.872597 43.183403
-43.470402 88.836197 42.701199
-42.500599 88.811401 42.459301
-41.500999 88.824402 42.593201
-40.488003 88.839005 42.805798
-39.493 88.869804 43.2118
-38.5075 88.895096 43.5504
-37.497601 88.882103 43.374298
-36.4935 88.876595 43.173203
-35.491299 88.909096 43.223797
-34.495499 88.901398 43.452099
-33.489101 88.954903 43.907799
-32.495701 88.934799 43.984699
-31.481699 88.948799 43.904202
-30.505899 88.932701 43.839699
-29.4944 88.9496 44.251999
-28.4884 89.033401 45.3918
19.096701 127.602 13.8576
18.2337 128.00699 13.5344
17.360001 128.38399 13.2094
16.487301 128.76401 12.8859
15.650099 129.207 12.579301
13.856501 129.875 11.9166
12.9712 130.228 11.5965
19.9328 127.15399 14.160299
-72.2295 167.35999 -21.3426
-18.4842 89.707504 55.592102
-17.499199 89.736404 55.875099
-16.4918 89.751495 56.205002
-15.502 89.778603 56.4851
-14.4938 89.7854 56.687199
-13.497 89.795998 56.824299
-12.510201 89.784302 56.676601
-11.492599 89.763405 56.416103
-10.4962 89.7854 56.689999
-9.49856 89.805901 56.9552
-8.4972696 89.810699 57.062397
-7.49789 89.813797 57.078297
-6.49647 89.8144 56.994999
-5.4935799 89.805298 56.884201
-4.4865704 89.802696 56.7005
-3.49611 89.782295 56.593803
-2.48752 89.7873 56.441898
-1.50237 89.760994 56.411198
-0.49458602 89.764404 56.254101
0.50760603 89.764 56.154602
1.50774 89.754593 56.027
2.5009699 89.733597 55.864597
3.50969 89.737701 55.675102
4.5101099 89.730003 55.548599
5.5065098 89.713898 55.4063
6.51372 89.711998 55.192898
7.4997497 89.676003 55.015003
8.5066605 89.6726 54.803799
9.5025702 89.650497 54.550098
10.4979 89.6334 54.299
11.4903 89.611504 54.035702
1.19043 89.523796 -34.177898
-46.502697 162.256 6.4502802
37.842503 108.35 23.180201
-10.049999 166.619 -17.705
6.9532099 131.08 19.376799
-77.474304 140.015 48.069702
18.499701 89.276794 48.6726
19.482599 89.253502 48.5994
20.501301 89.246101 48.664497
21.4874 89.251602 48.668102
22.481499 89.251503 48.473598
-70.421097 155.43001 27.334002
-76.490997 140.037 48.095699
-19.5033 118.175 35.2728
-69.512505 145.60901 42.805199
35.961098 109.622 -1.83337
-77.955093 163.899 -24.945601
-10.4908 122.38 34.608799
-46.4991 115.243 33.257
-30.982201 125.744 5.5384502
-70.497803 124.601 53.002998
-3.4953301 123.738 34.299797
43.340603 97.321602 19.1637
43.8908 97.329803 4.1757998
-89.530998 98.355194 17.4009
42.452301 95.849701 25.156799
35.331699 112.044 24.196199
-76.026001 151.34599 35.9505
26.0142 118.212 -5.38239
-92.130302 116.12 36.310402
-91.517502 140.60899 19.177601
39.306499 105.567 23.165001
-67.812195 90.883705 -16.9858
-81.1465 155.009 16.308901
22.3132 124.739 23.599001
-39.767101 127.634 -0.65454102
31.358101 116.535 25.5569
18.260201 127.523 19.245701
-61.858097 153.131 33.330002
22.0807 125.732 19.2313
-6.2736797 128.136 27.602798
-13.2005 128.825 4.8074298
6.37955 131.64101 12.0332
7.35987 131.51801 12.3881
-67.727097 155.79601 -2.2911799
-74.854393 156.11 14.1114
-5.7546701 100.8 46.0186
-82.247696 106.04301 -2.6226199
-86.649597 106.304 9.3720102
-72.529099 90.1409 41.391102
-71.504601 90.173103 41.730198
-70.503502 90.182899 41.854099
-69.494598 90.2043 42.225101
-68.491501 90.254601 42.841503
-87.261002 137.73399 5.2043896
-66.5084 90.347298 44.027298
-65.5009 90.373299 44.3899
-64.4925 90.399506 44.749302
-63.485302 90.4216 45.100201
-62.495499 90.438202 45.271301
-61.497402 90.447296 45.400898
-60.497299 90.438202 45.273098
-59.497597 90.4384 45.185303
-58.497002 90.438797 45.2323
-57.496101 90.438499 45.276798
-56.497601 90.436699 45.2654
-55.496201 90.429901 45.169102
-54.506699 90.415794 44.979698
-53.497299 90.398201 44.755898
-52.499397 90.387299 44.703403
-51.498802 90.386002 44.702103
-50.496998 90.395798 44.660801
-49.4977 90.393295 44.649399
-48.495098 90.385101 44.530701
-47.508003 90.354797 44.219402
-46.473999 90.332901 43.689999
-45.455898 90.297806 43.233303
-44.460697 90.268799 42.849602
-43.4818 90.249207 42.68
-42.4925 90.245201 42.648598
-41.496101 90.2351 42.569202
-40.506298 90.241699 42.646301
-39.497402 90.276299 43.111801
-38.491802 90.306297 43.464298
-37.481701 90.320198 43.5434
-36.497002 90.313499 43.616203
-35.4869 90.347794 43.788002
-34.492401 90.370003 44.218601
-33.491001 90.401199 44.4067
-32.4935 90.386894 44.277599
-31.495199 90.368401 44.195801
-30.481899 90.359299 44.0392
-29.492498 90.3536 44.110901
-28.445299 90.386398 44.847599
20.7654 126.69701 14.4664
21.5945 126.23299 14.7739
22.422001 125.761 15.0782
23.2288 125.257 15.3837
24.0159 124.704 15.6714
24.8097 124.191 15.977099
25.584801 123.614 16.2626
27.071999 122.359 16.820099
26.3253 122.966 16.5355
-18.484701 91.067001 55.0019
-17.4841 91.096298 55.474098
-16.4849 91.117393 55.829102
-15.4951 91.141502 56.091801
-14.4839 91.154297 56.307098
-13.4986 91.175201 56.4813
-12.485801 91.1558 56.526501
-11.4919 91.1558 56.410801
-10.499499 91.173996 56.481701
-9.4977703 91.186996 56.6315
-8.4994802 91.190704 56.727001
-7.4956198 91.199005 56.753597
-6.4960403 91.201401 56.761803
-5.4958501 91.185799 56.7127
-4.4914103 91.183899 56.5229
-3.4943299 91.1707 56.381798
-2.49248 91.161697 56.250999
-1.49595 91.1539 56.126301
-0.494259 91.145401 56.011101
0.50483501 91.135399 55.8722
1.50816 91.129601 55.668102
2.5111399 91.118904 55.4408
3.4970999 91.096001 55.256001
4.5087099 91.090401 55.051201
5.5078902 91.077499 54.811001
6.5004401 91.046303 54.535797
7.49229 91.015007 54.270802
8.4973793 91.010803 54.0495
9.5043602 91.007797 53.834198
10.498 90.9888 53.689701
11.503 90.985199 53.4706
12.4994 90.959801 53.1045
-0.429299 131.494 13.8246
-70.492798 117.562 52.7864
-71.492798 117.55199 52.947399
-72.499001 117.558 52.930798
-73.5009 117.559 52.797501
18.491199 90.647102 48.1735
19.492701 90.643196 48.152901
20.489 90.632401 48.214699
21.491899 90.642105 48.2356
22.489401 90.6371 48.127899
-41.4977 115.265 33.766197
-2.2787998 119.988 -13.191601
-23.535101 118.111 33.157501
-70.509598 145.61301 43.179401
-60.041 155.524 22.272499
-66.578705 163.76799 -57.985298
36.009399 105.316 -7.8047099
42.081799 101.483 16.164999
-14.4941 122.325 33.097
-69.490799 124.597 52.657398
-4.4921799 123.763 34.321701
43.5215 97.311806 18.153301
44.269199 97.357903 8.1648607
-9.2583199 177.25099 -27.730999
-11.4975 122.39 34.2495
-48.494598 156.40601 9.5775204
-70.533096 144.18501 44.275398
-10.5509 165.09099 -17.749199
-90.982498 116.07 30.318399
-47.8629 125.952 -7.0977201
16.490299 113.991 37.6096
38.131599 109.734 15.164599
-32.1679 120.788 27.294001
21.4921 125.223 23.2941
-9.7272997 130.07199 10.415899
29.4149 118.962 24.8216
17.402699 127.94399 18.931
-59.4646 151.494 34.236401
23.685001 124.697 19.826799
-70.751198 156.36501 19.9172
-14.4465 128.429 4.3476501
-11.9452 129.19701 5.2713699
5.3487701 131.711 11.6581
-64.793304 153.19 -1.16291
-67.018501 155.095 -2.0239201
-37.006401 121.579 28.5082
-59.193298 155.72501 13.87
-79.843697 119.249 -4.9981198
-93.407104 117.385 16.3015
-72.527901 91.560997 41.390099
-71.519699 91.589195 41.766201
-70.531502 91.590302 41.934799
-69.500496 91.615997 42.102097
-68.519501 91.641701 42.4016
-67.586304 91.560402 42.994499
-66.493896 91.725403 43.6166
-65.491806 91.753899 43.991001
-64.485497 91.7771 44.355198
-63.502399 91.814301 44.777901
-62.499798 91.833 45.0322
-61.4888 91.840202 45.216999
-60.496899 91.848701 45.269402
-59.495697 91.857796 45.384701
-58.4972 91.858795 45.398998
-57.498398 91.8591 45.398998
-56.498402 91.856499 45.385597
-55.502998 91.846802 45.251202
-54.504303 91.817398 44.882099
-53.502499 91.783905 44.4757
-52.497601 91.771103 44.1581
-51.4977 91.769394 44.151501
-50.499199 91.778099 44.236801
-49.492001 91.775703 44.207001
-48.473598 91.765396 44.029102
-47.479397 91.746704 43.819401
-46.478901 91.718102 43.4263
-45.473198 91.700706 43.186501
-44.485802 91.687996 43.029499
-43.480099 91.716499 42.888802
-42.494202 91.660202 42.6604
-41.497498 91.644699 42.479702
-40.496902 91.650497 42.596199
-39.499203 91.680305 42.9883
-38.475903 91.716995 43.4324
-37.490299 91.737801 43.727798
-36.475597 91.770203 44.0382
-35.492901 91.786804 44.3508
-34.4884 91.808403 44.5658
-33.489101 91.813995 44.516998
-32.497002 91.792595 44.301701
-31.496302 91.7789 44.224701
-30.4965 91.765297 44.116898
-29.4909 91.767799 44.093899
-28.4904 91.7855 44.378799
-27.530701 91.837196 44.932903
33.378201 115.97 19.200201
32.725098 116.757 18.9485
32.065601 117.53799 18.6978
31.383101 118.25 18.429399
30.692499 119.003 18.1751
29.259001 120.361 17.631701
27.8048 121.695 17.092999
28.534601 121.033 17.364
29.9804 119.686 17.9058
-17.4771 92.438896 54.745598
-16.453701 92.483696 55.263199
-15.4945 92.509705 55.5061
-14.495199 92.497993 55.608898
-13.495701 92.525803 55.8596
-12.4951 92.541702 56.095997
-11.5004 92.552696 56.122398
-10.4988 92.550003 56.118999
-9.5009298 92.558601 56.138401
-8.4942703 92.5522 56.224903
-7.49931 92.569298 56.2701
-6.49896 92.559006 56.3419
-5.49615 92.565697 56.2617
-4.4952102 92.560295 56.144402
-3.49386 92.550301 56.0196
-2.49367 92.550499 55.921402
-1.50095 92.525307 55.852497
-0.49261802 92.525803 55.659397
0.50560296 92.514999 55.525101
1.50906 92.510094 55.313801
2.5066099 92.494598 55.167999
3.5149601 92.490501 54.954601
4.50283 92.460701 54.676102
5.49857 92.43 54.294003
6.4986401 92.4086 53.834
7.49052 92.361603 53.428097
8.49261 92.348999 53.198402
9.4910002 92.331902 53.062
10.492901 92.322502 52.9394
11.4966 92.328598 52.732601
12.497801 92.312996 52.383198
0.66376799 131.541 14.2252
33.788902 112.917 26.474501
-18.0637 122.407 30.8158
-89.688797 137.91899 32.197098
-69.7061 156.30899 20.288599
18.4844 92.024002 47.770702
19.495699 92.0261 47.7827
20.4977 92.024101 47.9175
21.484301 92.023003 47.943398
22.476601 92.019798 47.839703
19.0905 127.062 19.552502
-75.509697 135.84601 50.632301
-22.534401 118.142 33.790001
-66.452805 145.47699 41.0093
-73.2183 172.207 -49.043098
-0.49944296 114.191 41.520302
16.652901 120.978 33.053303
-78.480698 137.23999 49.791199
-49.391602 144.765 9.3833199
-36.296799 126.23199 -2.3208902
-7.4820404 123.738 33.931698
43.382599 98.710205 4.1764097
44.2649 97.353798 7.1686702
-53.518002 153.40001 14.5047
-7.3164997 130.56 11.2981
-77.487106 138.65399 48.966801
-73.503204 144.216 44.934101
22.476 125.33701 20.806999
-31.127899 168.26401 -6.54632
-37.743599 127.354 0.111554
-54.308998 153.692 17.104801
-53.148197 161.241 5.8759599
-67.565498 156.308 21.0392
20.6619 125.677 22.985001
-8.5242701 130.326 10.8566
-89.1577 92.949005 21.416201
36.026703 110.062 25.881802
-85.290298 152.84399 23.8067
24.4484 124.114 20.115
8.8879995 126.629 30.1427
37.024799 109.07 24.8298
-10.6876 129.55301 5.73838
35.734798 111.877 22.915199
-86.879501 92.725296 3.42064
-92.473701 125.588 36.260799
-70.189201 156.285 21.569
-76.172394 154.401 1.9886301
-18.231699 187.056 -18.2936
-91.655594 116.096 32.316601
-72.494202 92.870598 41.3391
-71.511002 93.010704 41.746201
-70.513298 93.025398 42.014301
-69.4907 93.037399 42.202396
-68.514694 93.0476 42.2841
-67.496201 93.067802 42.601601
-66.511398 93.1036 43.0214
-65.501694 93.135696 43.507599
-64.483803 93.156204 43.972099
-63.500301 93.197197 44.392101
-62.472599 93.208 44.810898
-61.488503 93.2285 44.978397
-60.495201 93.242599 45.114498
-59.498703 93.257301 45.174099
-58.496399 93.259903 45.269501
-57.495098 93.264999 45.192799
-56.498699 93.247696 45.128403
-55.492901 93.238396 44.918198
-54.494999 93.212097 44.536697
-53.496201 93.182602 44.151398
-52.497601 93.1679 43.9324
-51.498497 93.1716 44.0238
-50.499802 93.189705 44.286999
-49.4967 93.203903 44.502197
-48.487202 93.182404 44.2201
-47.484699 93.151802 43.805698
-46.4855 93.134705 43.535301
-45.484901 93.125198 43.4035
-44.500702 93.1064 43.109001
-43.4939 93.077698 42.7388
-42.507999 93.030701 42.4902
-41.5 93.051399 42.3592
-40.499798 93.058899 42.492302
-39.5093 93.087898 42.886497
-38.466801 93.123695 43.4147
-37.486198 93.156601 43.8456
-36.481102 93.1828 44.199799
-35.477501 93.200203 44.4179
-34.478401 93.211197 44.512302
-33.4907 93.206398 44.454998
-32.492702 93.209801 44.431602
-31.492502 93.213799 44.428799
-30.492001 93.206001 44.305099
-29.4928 93.199295 44.344997
-28.490599 93.206299 44.485497
-27.498299 93.224693 44.764297
-26.628201 93.264297 45.173
-14.1549 129.252 14.5753
34.028702 115.127 19.4375
34.657799 114.254 19.6698
35.263298 113.355 19.892599
36.460102 111.481 20.3251
37.636299 109.58401 20.756901
-15.4115 128.89101 14.1212
37.051903 110.502 20.534399
35.871597 112.393 20.1061
-16.499701 93.831398 54.193001
-15.483001 93.822205 54.6278
-14.4923 93.841003 54.652699
-13.5421 93.873001 54.746201
-12.499701 93.894699 55.164101
-11.492701 93.8853 55.473301
-10.4958 93.9039 55.503902
-9.4958601 93.895599 55.493103
-8.4961805 93.901596 55.499599
-7.49757 93.9067 55.618698
-6.4981699 93.927597 55.650303
-5.49893 93.919395 55.6385
-4.4974399 93.9058 55.611202
-3.4983802 93.896393 55.487099
-2.4978399 93.903801 55.3992
-1.4996001 93.886597 55.360298
-0.50221801 93.8722 55.2243
0.49843803 93.8703 55.115498
1.50188 93.8741 55.0191
2.49981 93.863197 54.785
3.5143101 93.862495 54.4725
4.5007401 93.821693 54.0732
5.4973402 93.784302 53.578999
6.5002198 93.760201 53.105103
7.4812298 93.725304 52.7164
8.4812603 93.683197 52.444599
9.4915304 93.687599 52.236301
10.488299 93.6688 52.1003
11.483299 93.647102 51.8498
12.4869 93.638504 51.5089
13.4712 93.601395 51.128201
38.448299 108.37 20.1721
40.6661 105.634 12.1644
-50.4953 154.96799 10.7183
17.4748 93.453896 48.154202
18.472399 93.423798 47.6306
19.489201 93.417397 47.618603
20.487101 93.414597 47.692699
21.486401 93.418701 47.712898
22.475 93.3993 47.466999
-72.500999 118.98 53.433998
-32.496399 117.987 30.979101
-21.523001 118.151 34.2827
-73.508904 120.39201 53.560902
-61.813 175.696 -58.606503
-9.1696901 168.123 -20.7225
5.1584997 127.708 28.8034
-79.416702 137.23599 49.578499
-30.467501 175.74901 -4.2382898
-69.717499 155.623 2.8257
-6.4882998 123.76801 34.078899
43.549 98.732498 5.1676197
44.035999 97.346405 5.1708503
-24.580599 124.862 19.6194
-73.489899 123.20599 53.5424
-78.463501 138.605 48.901901
-72.5121 144.203 44.795799
-32.9445 121.33801 26.992201
-58.680199 148.237 34.554001
-81.462395 131.63 51.7276
-80.499596 127.434 52.884998
-73.235603 176.411 -53.0886
-68.548096 156.42899 20.685799
23.083599 124.16 23.8853
-10.866199 129.871 9.9977894
-38.460197 127.12399 -1.6298801
35.443001 111.04501 25.6623
-69.185005 156.032 24.845499
22.8724 125.195 19.5238
21.252901 126.2 18.926899
36.476501 110.061 24.617899
-9.4920101 129.843 6.17837
36.316399 110.89 23.126499
-66.272301 154.476 -1.73975
-65.554794 153.78799 -1.46085
10.602099 124.63 32.201202
-83.721802 154.14099 15.4269
-9.9192295 98.622597 50.578697
11.3328 124.014 32.523598
-45.8806 105.64 -20.180101
-71.526299 94.418694 41.652702
-70.492104 94.443298 42.080498
-69.482399 94.457901 42.294498
-68.494202 94.461098 42.334499
-67.492004 94.458801 42.330601
-66.509598 94.4832 42.518501
-65.485298 94.499901 42.9585
-64.514999 94.553406 43.411697
-63.501904 94.575897 43.887398
-62.4814 94.590996 44.3423
-61.484898 94.601601 44.582401
-60.485699 94.604004 44.690601
-59.497402 94.631699 44.757103
-58.4963 94.618797 44.826599
-57.495502 94.637901 44.773701
-56.502102 94.620598 44.73
-55.505699 94.599998 44.463001
-54.499901 94.582901 44.108902
-53.497002 94.566299 43.853302
-52.4967 94.572701 43.872299
-51.496101 94.588799 44.111
-50.488598 94.620506 44.536301
-49.496899 94.6343 44.743
-48.500999 94.626701 44.615803
-47.474899 94.571701 44.063499
-46.451801 94.556801 43.635498
-45.495399 94.5383 43.3792
-44.464802 94.505302 42.949799
-43.485401 94.486801 42.648701
-42.4855 94.470001 42.323101
-41.499802 94.452499 42.148399
-40.504299 94.4618 42.267899
-39.491402 94.488899 42.710098
-38.479 94.516907 43.190201
-37.4622 94.546303 43.653
-36.479301 94.567703 43.942898
-35.4827 94.589897 44.198902
-34.4963 94.609001 44.3801
-33.493298 94.614899 44.485699
-32.485199 94.624901 44.527699
-31.493801 94.627098 44.606499
-30.494801 94.645996 44.851898
-29.490101 94.664795 45.053501
-28.496201 94.663399 45.102901
-27.4872 94.654999 45.096901
-26.505501 94.666504 44.661999
-25.498699 94.5485 44.637798
-66.532295 154.66701 2.52946
-45.523403 131.92201 11.9481
-31.5791 125.791 17.0798
-29.7787 125.132 17.740601
-13.359401 127.978 23.6019
0.512384 127.929 28.588001
7.1034904 126.169 30.973499
5.2369399 126.70401 30.297701
1.44942 127.67901 28.937799
-15.5009 95.191299 53.364101
-14.4859 95.155098 53.555801
-13.489901 95.166306 53.453098
-12.5183 95.237999 53.631203
-11.489699 95.179199 54.278103
-10.493299 95.229904 54.526703
-9.4899397 95.206902 54.612701
-8.4979706 95.252502 54.555698
-7.4945302 95.2341 54.754398
-6.4991002 95.267494 54.792698
-5.49683 95.262001 54.7887
-4.4981999 95.243095 54.763298
-3.4988298 95.210999 54.715
-2.4975698 95.229904 54.631699
-1.49834 95.227005 54.625
-0.500036 95.229607 54.519402
0.49039 95.201904 54.477299
1.48048 95.261299 54.240799
2.4957502 95.206795 54.046299
3.47944 95.161995 53.7659
4.48177 95.143105 53.298702
5.4949803 95.137794 52.8545
6.4865298 95.1017 52.474899
7.4941802 95.087997 52.015099
8.48559 95.0467 51.630199
9.4850903 95.022903 51.266903
10.4769 94.977806 50.994198
11.469501 94.941803 50.726398
12.4807 94.959801 50.413097
13.46 94.917 50.135899
-57.716 154.70401 24.562599
24.783401 123.596 21.664999
25.7715 122.252 23.461901
17.4632 94.8293 47.857002
18.488699 94.821404 47.514801
19.493799 94.813507 47.383202
20.484098 94.806595 47.437798
21.4853 94.803802 47.357399
22.4755 94.781097 47.095501
-33.494301 118.02 31.1453
-4.48593 118.295 38.989101
-74.497002 120.396 53.363201
-87.251198 106.353 13.3638
-68.173698 74.978996 38.3298
-32.467999 175.717 -2.9175701
9.4969301 121.023 35.868298
38.317799 106.87901 0.185785
-22.994701 122.243 27.586599
-5.4875398 123.746 34.308502
42.240601 98.676201 22.171499
35.761597 96.776901 -11.8087
-67.343597 155.16899 28.416401
-71.495201 123.214 53.412502
-79.4627 138.625 48.583199
-71.532402 144.16499 44.620499
8.97367 131.12199 17.2577
36.347698 102.053 31.638901
-79.488503 131.66399 52.476398
37.319599 105.416 -3.82358
37.450802 109.679 2.17662
-4.9569702 97.837502 52.341
23.844601 123.573 24.1681
-12.1305 129.539 9.5351801
-37.475002 126.93299 -1.2539999
32.486401 115.764 24.555599
-25.634001 122.393 25.160999
-77.169899 154.422 4.5573602
19.5548 127.05199 18.2976
35.9077 111.056 24.4077
-8.2879801 130.10199 6.6208801
11.2135 130.703 13.7986
12.1385 130.422 14.139199
13.015201 130.05701 14.4613
13.927799 129.741 14.8027
14.767 129.313 15.1085
-37.684998 127.343 16.3262
-52.531498 149.847 19.294901
-86.842201 134.936 2.2693801
-71.525604 95.822807 41.3941
-70.502602 95.8452 41.8601
-69.495605 95.858299 42.089397
-68.495598 95.868401 42.213802
-67.487396 95.860199 42.180698
-66.499001 95.872406 42.234501
-65.501396 95.891106 42.495701
-64.4795 95.907799 42.9389
-63.503601 95.949005 43.260101
-62.475903 95.947495 43.682999
-61.493797 95.976898 43.859501
-60.490601 95.980804 43.977001
-59.494598 95.985298 44.094902
-58.497803 95.9813 44.084301
-57.498398 95.978401 43.966599
-56.497601 95.978699 43.859299
-55.495899 95.9795 43.661098
-54.4972 95.963203 43.608597
-53.496201 95.964401 43.614101
-52.486801 95.960106 43.681099
-51.493599 95.9907 43.984398
-50.495098 96.017502 44.372398
-49.497803 96.023705 44.481697
-48.4883 96.031303 44.448498
-47.466198 96.003304 43.993599
-46.448601 95.973099 43.4949
-45.482399 95.940903 43.1744
-44.467598 95.921501 42.8438
-43.486698 95.901604 42.657799
-42.479298 95.873901 42.3242
-41.496899 95.864998 42.134399
-40.492699 95.866096 42.191502
-39.487701 95.879005 42.444901
-38.482903 95.905602 42.823502
-37.487297 95.932602 43.211399
-36.473801 95.943604 43.5424
-35.471397 95.960197 43.7897
-34.487301 95.994194 44.090401
-33.491398 96.017395 44.365002
-32.493999 96.035004 44.618599
-31.490501 96.043602 44.808701
-30.493799 96.055595 44.953598
-29.4958 96.065903 44.989101
-28.5 96.044601 44.809597
-27.4981 96.0112 44.322899
-26.4981 95.978401 43.767502
-25.487499 95.978104 43.833199
-24.503199 96.016899 44.275299
11.4621 125.412 31.086201
-14.4911 124.164 30.554001
-30.372 124.909 19.004
3.8898699 98.768303 49.5103
-89.499306 135.15501 30.206701
-0.225629 97.747002 52.518299
6.9493899 128.215 28.0149
-16.4554 96.357101 51.263897
-15.367801 96.440002 51.772301
-14.4732 96.429001 52.208698
-13.4683 96.423203 52.315899
-12.4889 96.487206 52.250099
-11.4785 96.512901 52.611298
-10.476 96.518204 53.185398
-9.4885397 96.544495 53.4324
-8.4945107 96.567902 53.454399
-7.4923902 96.542999 53.542099
-6.4921398 96.553696 53.663101
-5.49542 96.571106 53.682301
-4.4953504 96.555901 53.666302
-3.4976001 96.580605 53.5793
-2.4986801 96.552399 53.659901
-1.49973 96.574097 53.6819
-0.502572 96.556503 53.663998
0.48857701 96.540901 53.530399
1.49843 96.550194 53.199299
2.47314 96.483604 53.027
3.47668 96.480896 52.6894
4.4851298 96.478905 52.347202
5.4689999 96.433296 52.071499
6.4692397 96.4123 51.604599
7.4854498 96.408798 51.036297
8.4761591 96.357597 50.526299
9.4879208 96.3424 50.058102
10.4732 96.298393 49.887199
11.4882 96.325394 49.5798
12.4693 96.282104 49.405899
13.462601 96.269798 49.046902
14.466599 96.264198 48.599899
15.473 96.253098 48.129101
16.4935 96.251503 47.7962
17.492899 96.234497 47.533501
18.4956 96.219299 47.2822
19.483299 96.199104 47.195698
20.4867 96.192703 47.096802
21.477001 96.177399 46.9631
22.4877 96.164299 46.634201
-34.495399 118.007 31.254898
-3.4911199 118.31499 39.016399
-75.517601 120.37801 53.056602
-33.497097 119.32899 29.9275
-74.486801 148.35001 40.861401
-44.4953 120.65 27.6432
8.5006199 121.03799 36.011799
-89.381203 113.196 21.7139
3.9380798 131.67099 15.424399
27.265299 121.00201 24.0179
-41.426403 125.09299 -8.2698202
-73.439003 148.627 -29.805302
-4.9643898 130.95801 12.1612
-66.373199 79.612701 41.874599
-80.456802 138.62199 48.116699
36.770401 109.675 0.24310499
-4.2940297 131.101 13.8416
41.401699 104.253 5.1652098
-78.485001 131.655 52.6796
-92.124702 116.117 35.311302
-27.509199 181.50499 -8.7415199
-45.833401 92.7472 -21.798599
-69.928001 113.66199 -9.1620302
-67.215302 156.28401 16.8104
24.572498 122.909 24.441401
-18.355801 127.798 7.2569499
-36.518398 126.74699 -0.92827404
31.873301 116.64 24.3218
-41.810799 128.972 10.3834
20.42 126.659 18.618799
-20.3015 124.709 24.105902
-7.1475701 130.278 7.04353
-5.8810201 130.577 7.5138702
-30.559999 124.009 -1.64624
-31.5292 124.197 -2.0225399
-93.295593 128.23001 14.251
-88.403099 101.017 20.375799
15.6548 128.96501 15.4331
-25.3871 124.202 20.8009
-68.644203 156.175 23.5781
-71.518898 97.212204 40.996902
-70.531097 97.248505 41.4142
-69.434998 97.2593 41.728401
-68.503601 97.264297 41.869801
-67.499504 97.269501 41.976799
-66.506104 97.275597 42.005798
-65.510597 97.288101 42.152699
-64.487701 97.294899 42.447102
-63.499199 97.312401 42.6152
-62.502602 97.336502 42.884102
-61.495502 97.343498 43.110001
-60.495102 97.348 43.223499
-59.494598 97.347198 43.225502
-58.501602 97.369797 43.1908
-57.4972 97.351601 43.130001
-56.4981 97.3554 43.154701
-55.498299 97.352104 43.238899
-54.498402 97.359596 43.259399
-53.496799 97.351601 43.235802
-52.489899 97.350601 43.326401
-51.493999 97.382004 43.725502
-50.494999 97.407501 44.005699
-49.4963 97.418503 44.040699
-48.497402 97.406296 44.001698
-47.5033 97.371895 43.621201
-46.492199 97.352997 43.1423
-45.501701 97.334099 42.968601
-44.481003 97.333702 42.8134
-43.509201 97.301399 42.584499
-42.494598 97.287498 42.245102
-41.500099 97.270897 42.066898
-40.497299 97.2715 41.989597
-39.505898 97.2892 42.146999
-38.511299 97.310699 42.410797
-37.489101 97.311897 42.7062
-36.475201 97.32 43.046097
-35.468803 97.333702 43.286404
-34.473698 97.3629 43.670097
-33.518501 97.423393 44.053497
-32.4865 97.418198 44.339798
-31.493601 97.434998 44.487
-30.496399 97.433098 44.5755
-29.502501 97.414398 44.507702
-28.500198 97.396004 44.056099
-27.4965 97.372398 43.5854
-26.4937 97.385101 43.722397
-25.492701 97.412201 44.108303
-24.4818 97.451302 44.4604
-23.481499 97.449493 44.821003
-28.617599 124.173 19.650801
44.7715 70.791 23.317101
-28.262899 122.524 22.733999
45.312901 69.8237 23.466
-54.6525 154.18599 15.524899
51.180199 68.7267 25.6724
46.106701 69.237999 23.835899
-15.4978 97.747604 48.932499
42.393299 90.163498 -6.8234601
-93.181602 121.543 37.282898
-94.461296 121.47601 21.2834
-49.349899 141.685 9.3955793
-67.8507 166.619 -55.0103
-9.4827795 97.835304 51.868
-8.4856195 97.842796 52.1021
-7.4892797 97.833603 52.094398
-6.4924898 97.856903 52.223801
-5.4924598 97.843002 52.3265
-62.316399 153.672 -30.6063
-62.311501 163.11 -43.5951
-2.4973602 97.828796 52.427601
-1.50184 97.8367 52.434002
-0.51118004 97.839401 52.433498
0.47434598 97.798897 52.2897
1.45793 97.7369 51.9067
2.4706299 97.763504 51.476501
3.46471 97.753799 51.237999
4.4650197 97.729202 50.994999
5.4499898 97.676003 50.7202
6.4802999 97.709801 49.931801
7.4848003 97.682404 49.4394
8.4889297 97.687805 49.2062
9.4892702 97.669197 49.050499
10.4935 97.688202 48.843399
11.480599 97.646996 48.782501
12.476 97.663406 48.562401
13.4806 97.666298 48.2444
14.4699 97.6455 47.967697
15.469299 97.631203 47.708401
16.4701 97.626404 47.455097
17.482899 97.610397 47.2234
18.487499 97.600197 47.0854
19.480101 97.585403 46.9408
20.4758 97.571594 46.812603
21.4666 97.551399 46.5681
22.4678 97.526497 46.211002
-35.494598 118.01701 31.270798
-2.4930098 118.317 39.019001
-76.603004 120.411 52.603302
-32.495598 119.317 29.550699
-75.481804 148.362 40.6222
-43.3806 120.69901 27.8302
7.4972701 121.00201 36.076797
-71.7062 159.603 -40.933002
3.4136901 131.576 16.6618
28.003801 120.349 24.295
-64.9944 132.589 -8.3104591
-52.504498 159.36101 8.1916895
13.046201 129.592 20.181299
37.083702 103.994 -6.8320799
-2.4465399 131.11401 8.7818508
-77.474899 141.41301 47.068901
-42.455299 128.377 1.31486
36.9538 108.295 26.187698
-76.495796 131.68199 52.644199
-74.683304 155.701 -0.366346
-26.4503 181.668 -8.5337601
-72.891197 113.54 -7.5648398
2.8680401 129.802 25.0965
25.2887 122.228 24.7087
-19.615 127.443 6.7965097
18.571199 126.949 20.7922
31.211599 117.42001 24.0751
-46.448498 132.668 18.940599
18.7225 127.515 17.9893
-18.966799 125.144 24.550701
-64.121407 155.412 26.632801
-24.371199 122.748 25.5975
-78.558105 153.66901 4.0771599
-43.560101 129.686 9.7316904
-45.900902 131.661 19.160099
-78.192398 155.673 15.865499
-74.171501 151.271 -31.882498
16.5672 128.65401 15.768001
-24.292999 124.271 21.1991
-71.237198 167.16499 -20.990099
-70.522102 98.628998 40.884201
-69.491806 98.623199 41.191002
-68.498497 98.649506 41.4678
-67.489799 98.660797 41.695099
-66.513802 98.678703 41.775799
-65.509201 98.692604 42.018803
-64.485397 98.6987 42.306301
-63.509396 98.705795 42.266903
-62.496597 98.715302 42.476898
-61.496899 98.735901 42.735302
-60.487301 98.727501 42.8004
-59.502201 98.744804 42.776001
-58.500202 98.749603 42.896198
-57.497501 98.751503 42.987103
-56.497101 98.7696 43.163799
-55.501801 98.771294 43.283398
-54.475098 98.767403 42.954002
-53.499603 98.738701 42.7565
-52.492699 98.733902 42.9361
-51.486897 98.755394 43.3116
-50.496998 98.787796 43.509899
-49.495899 98.803299 43.544201
-48.496101 98.792702 43.5149
-47.498699 98.768799 43.134296
-46.494099 98.7388 42.754501
-45.490803 98.7379 42.653301
-44.493999 98.7314 42.632
-43.483997 98.724098 42.434101
-42.5023 98.693604 42.190601
-41.496502 98.675804 41.857101
-40.4977 98.665703 41.7206
-39.509098 98.682297 41.774101
-38.506104 98.688904 41.987099
-37.503201 98.721306 42.382
-36.495399 98.732498 42.7313
-35.484798 98.725105 42.822399
-34.490101 98.748604 43.091
-33.4818 98.771805 43.574699
-32.5019 98.8116 43.880699
-31.4884 98.800102 44.068401
-30.496 98.808105 43.978603
-29.5082 98.789497 43.709099
-28.490999 98.7621 43.412201
-27.5028 98.800598 43.559303
-26.4937 98.817001 43.987099
-25.483 98.842705 44.445103
-24.4818 98.855499 44.689201
-23.498199 98.872398 44.777798
-22.4928 98.854805 44.702
-21.497 98.847504 44.494099
-20.4963 98.840698 44.481098
-47.024601 133.586 18.709799
-84.452103 153.452 22.580101
7.8767605 127.927 28.3381
-65.500603 155.90601 11.6223
50.304199 69.124298 25.377399
-40.965603 122.16299 27.052799
-13.4628 98.956398 47.528999
-85.372498 111.782 27.3822
-87.576599 122.583 -0.71317804
-93.447701 121.479 26.296301
44.166698 97.3563 6.1691198
-64.291496 169.48799 -60.778599
-87.577904 102.333 21.364801
-78.186401 161.09499 -22.934799
-79.4888 111.206 45.300201
-74.896301 69.051697 24.493898
-10.6577 165.418 -19.8106
-63.271 158.52199 -16.5888
-62.316002 158.431 -19.584
-9.2116499 172.68599 -27.568201
44.861301 90.372597 19.170099
-51.317299 146.26799 14.4074
-89.684799 92.9338 14.4339
3.4577 98.981499 49.316399
4.4839802 98.982399 48.711098
5.5005403 99.038605 48.2677
6.5047803 98.999802 48.104301
